1.921543 7.329983 -0.018075
5.323236 11.735017 0.016007
10.042656 0.877432 -0.004990
8.636960 1.794672 -0.008101
10.900695 9.969737 0.025500
16.981313 1.741357 -0.023346
4.504846 4.599558 -0.009192
0.553284 3.377991 0.017329
0.764509 2.921337 -0.024639
2.683376 0.308663 0.035507
11.409660 6.795015 -0.004337
16.163696 4.814874 0.017491
17.736119 6.619083 0.017449
12.702264 3.654098 -0.003046
8.062865 11.297530 -0.009580
3.090294 7.096166 -0.000859
8.028367 11.534485 0.014254
6.648303 4.200071 -0.019728
17.400518 0.027474 -0.024065
9.734388 9.375187 0.029684
4.523918 9.928546 -0.014697
5.776021 0.704441 0.007082
2.729403 7.504431 -0.004044
18.371709 7.932214 -0.003157
1.006917 1.748806 0.028608
0.256925 6.630295 -0.001703
3.659779 2.918387 -0.007137
16.217480 0.197420 -0.005394
10.469336 10.402933 -0.010069
12.516866 5.900342 -0.013402
7.154634 9.380389 -0.009989
1.373560 8.674716 0.033264
17.123163 11.924463 0.014230
3.837885 5.255441 -0.006904
0.661184 5.130607 0.019633
11.454083 3.381067 -0.031744
1.665784 7.501767 0.027514
1.915237 5.833350 0.025903
16.007541 8.745133 0.044727
9.832192 4.278140 0.020231
4.830169 1.570137 0.008745
6.972528 10.349225 0.025823
14.584820 9.936563 -0.012516
1.327083 4.212002 -0.007908
2.329612 8.284221 -0.001285
12.325241 5.908835 0.027378
12.139435 9.131665 -0.017118
19.449244 4.681588 -0.019241
7.490990 6.427671 0.004731
1.301553 0.693793 0.014351
10.750749 2.098920 -0.014062
12.766936 9.381187 0.013408
2.792056 4.578786 0.027368
11.057239 0.421265 0.024009
3.955342 2.011635 0.007066
16.894601 4.939176 -0.001812
16.703230 8.614957 0.034712
8.592582 4.361821 0.000308
19.334864 8.942229 0.018807
19.595477 10.296727 0.039166
2.585022 4.093639 0.016705
7.354276 9.604507 -0.019942
12.006429 1.522568 -0.024780
1.696756 4.983402 -0.005953
7.653110 1.170749 0.014190
5.223442 0.630336 0.008896
19.041004 0.774329 0.044142
8.231716 1.257024 0.008701
15.253417 10.028711 -0.006549
7.734107 6.524125 -0.022667
2.636241 11.368658 0.023609
17.263031 6.456004 -0.000121
0.008338 7.544536 -0.030123
1.118817 2.213808 0.000445
7.287688 6.486972 -0.019915
13.737965 4.623631 -0.008513
6.834086 11.177224 0.000124
1.326256 11.207055 -0.018104
6.356801 2.381983 -0.009752
4.899617 7.441570 -0.014882
0.108396 7.658110 -0.014346
10.696038 6.750421 -0.020160
2.332918 1.491956 -0.009655
5.749926 7.848184 -0.017894
12.823797 9.589023 0.011732
14.502314 4.142712 0.004016
5.269113 6.174620 0.023894
6.583873 1.395935 0.037734
4.938185 11.168265 0.013547
19.137772 1.314454 0.008992
3.810395 2.500525 0.014807
3.663612 3.581742 0.009332
8.900706 9.909483 0.001004
3.786127 8.407871 -0.000587
3.134169 0.084173 -0.020433
1.917591 2.202739 0.016778
12.803425 9.001814 -0.000626
12.241645 4.846014 0.028990
13.003258 0.314562 0.018303
15.466000 11.567003 -0.012519
6.527160 1.814795 0.024934
18.368475 6.125600 -0.051215
14.664092 2.979793 0.038605
16.094172 8.849632 -0.026769
14.419243 9.320713 0.009902
7.169113 4.766645 0.008548
5.660650 7.901395 0.022474
8.450341 10.908883 -0.006574
1.940607 9.777709 -0.042910
9.025610 4.978773 -0.006546
0.862820 5.297713 -0.004383
0.078919 10.642539 -0.040984
18.629979 0.412474 0.000907
13.786737 0.273739 -0.021517
11.236939 2.469544 0.012982
6.822041 9.931460 -0.004922
11.410760 1.838558 0.039222
17.831516 3.423351 -0.005124
13.047603 7.548824 0.008608
12.049640 2.210914 -0.004261
9.204090 3.637396 -0.032465
6.913941 5.602953 -0.004094
13.970942 2.737311 0.015068
19.619619 11.908964 0.012040
8.495154 1.961352 -0.005865
7.844104 10.199245 -0.029135
8.562269 5.641198 0.012889
8.510879 1.549484 0.008390
19.812495 1.421834 0.016868
14.135565 6.003553 -0.005482
7.183689 4.242242 -0.033687
7.430047 2.815228 0.010675
8.615938 11.507270 -0.000183
0.734244 5.560557 0.027834
10.556328 11.145732 0.000575
16.227619 1.967997 -0.000909
13.211356 2.201593 0.008345
3.968417 7.152332 -0.011939
14.560685 3.238508 -0.012903
14.389172 2.219254 -0.001958
5.250784 1.136225 -0.018408
12.457493 0.915248 -0.004582
12.218981 9.038021 0.038791
16.795752 3.385958 0.020853
2.721446 11.741030 0.006161
3.896770 2.197454 0.031034
9.719390 4.253360 -0.016498
0.882903 4.498903 0.049809
8.311884 6.001834 -0.009210
15.764381 10.447630 0.040076
2.974288 10.017243 0.039988
9.198975 0.119476 -0.035065
19.795385 4.911061 0.029342
10.118400 9.935241 -0.005678
9.966476 0.002374 -0.011359
11.175872 6.403675 0.010493
3.720087 3.113707 -0.020158
2.943278 4.953223 0.010040
13.547093 5.043656 -0.018816
7.915336 4.701053 0.003542
5.798133 10.703401 0.026707
0.627832 6.437563 0.007730
16.921010 10.844961 -0.007196
0.646577 8.720909 0.010828
14.999662 4.213441 -0.028130
7.639771 5.922764 -0.016777
11.973756 4.678302 -0.008605
4.953560 9.942891 0.015737
3.107993 2.251174 0.008116
10.667760 11.236947 0.010703
13.912354 6.965094 -0.000548
3.909866 7.341095 -0.015762
8.727179 6.201617 0.029762
8.893099 6.653958 -0.013956
4.319583 8.012105 0.008381
11.300989 7.860423 -0.002242
2.918714 2.569765 0.011260
10.194983 6.989282 -0.012110
2.268630 4.255517 0.021054
9.710848 7.644364 0.027566
6.231981 6.574015 0.019826
9.044926 2.156159 0.003153
8.674987 8.816807 -0.008703
18.158662 5.484161 0.056442
9.798712 6.617299 -0.019832
16.369978 8.071714 0.017625
4.513048 7.834461 0.006656
7.041656 8.987146 -0.001251
1.501788 2.481021 0.003703
8.414956 1.324695 -0.010204
13.373998 8.030155 0.008541
16.763341 2.831819 0.006336
11.318298 1.375258 0.053553
12.801453 1.574850 0.021416
3.545342 3.753601 0.010318
0.744121 11.901445 0.011511
15.833763 1.887124 0.036791
3.340764 3.582439 -0.019409
1.823391 11.048810 -0.003655
18.751246 11.559697 -0.038143
19.270427 2.746120 0.011175
12.325146 10.565432 0.016963
7.572745 1.667015 -0.019912
16.664791 9.138437 0.028702
4.094399 0.156098 -0.014378
8.587847 4.879436 -0.006849
7.140346 2.968022 0.002391
18.254000 8.448096 0.031884
18.395548 0.192674 -0.017164
13.017719 5.578820 0.005825
2.214803 8.360748 0.015497
9.643856 0.560458 0.011369
4.906567 10.768802 0.012108
17.698313 4.334369 0.015230
2.768056 1.983190 -0.011094
1.086206 2.705574 0.033756
14.088581 4.066871 -0.002223
9.065721 2.380501 -0.004877
16.767298 6.126945 0.026953
1.492593 7.595181 -0.012611
16.021523 5.201161 0.006406
0.746695 5.124386 -0.014457
0.561400 9.380394 0.050385
9.226315 3.612201 0.046173
4.425826 7.473226 -0.002205
11.874374 10.715059 0.010397
0.516340 2.658172 0.000104
0.707791 7.438809 -0.006972
14.542970 11.375661 0.002393
4.203303 6.357543 -0.000812
13.128342 11.722773 -0.030413
14.998443 3.720553 0.005260
1.186623 6.771527 -0.000846
15.395079 3.732429 0.006244
5.368424 0.044633 -0.001550
7.790919 11.967697 -0.007207
1.732784 2.880721 0.017498
16.772600 11.677224 0.010663
11.214576 7.836394 0.027921
10.093306 10.847203 0.009895
19.371096 11.606433 -0.003952
6.690115 6.813950 0.012335
17.815586 11.996296 -0.039612
14.393758 9.207959 0.042074
18.570563 6.285775 0.005488
18.156041 7.859319 0.043689
19.820596 2.331256 -0.017387
2.633535 0.132391 -0.022353
15.920328 3.081472 0.007317
16.089887 5.219650 0.007251
12.887471 2.736631 0.006765
5.577219 6.168431 0.003717
19.302965 7.895330 -0.012562
4.088443 7.869526 -0.029707
9.991508 10.725173 0.005663
10.429742 11.595829 -0.025652
3.236587 10.688340 -0.027540
14.450576 7.442100 -0.007613
1.777343 2.469170 0.008613
13.861956 11.321414 0.039755
16.972310 2.098325 0.019585
6.987929 1.817129 0.028664
14.188416 3.810832 0.013073
3.135480 6.883267 0.007337
16.918980 8.177672 0.050116
19.040634 0.159512 -0.026457
3.053874 9.336267 -0.008265
13.837189 2.100235 -0.006704
10.116622 3.557818 0.017871
10.629987 3.865041 -0.019576
14.129794 3.989352 0.015269
9.774810 9.124411 0.011593
12.006528 0.491332 0.016267
4.618020 2.358214 0.015904
7.570132 0.267831 0.030766
17.304807 9.339593 -0.000984
2.198050 11.804668 0.010603
11.951505 7.914566 -0.014731
3.685741 7.081670 -0.019296
16.930792 10.896795 0.035297
11.580879 3.059448 -0.016242
8.060976 0.797548 0.012826
4.996493 6.119639 0.010621
8.736894 3.124184 0.023500
19.152247 5.412979 -0.033164
10.184186 5.475598 0.017824
9.389791 3.825982 -0.001161
14.925476 5.835895 -0.011998
7.580941 4.561823 -0.005016
8.548479 1.356712 0.020735
6.738955 10.400708 0.014625
3.018395 8.415285 -0.002558
14.276184 0.495706 -0.022782
17.460618 1.389437 -0.021371
18.111853 1.158174 0.015061
17.616059 0.740923 -0.025555
9.035676 0.708681 -0.002363
5.681324 1.885348 0.053621
12.758475 10.174433 0.009191
19.094098 9.938800 0.014845
14.541013 9.397758 -0.021221
9.896971 7.376478 -0.024546
13.776171 8.681923 0.015916
15.450758 8.861775 -0.005647
18.385385 10.671754 0.023472
15.264315 8.788116 0.002863
8.663811 8.837512 0.071127
5.472130 9.648974 -0.009446
9.997633 6.676258 0.007783
6.563559 2.556345 -0.015883
18.855292 1.014510 0.022642
10.159317 5.028523 0.010810
9.441127 1.100228 -0.017224
6.963924 2.031648 -0.004346
12.788140 0.286080 0.029437
10.401026 3.602475 0.027034
2.580978 11.639974 -0.026288
17.384156 4.547175 -0.007319
7.180257 2.890711 0.038428
8.651569 4.841394 -0.001344
4.113341 3.616062 0.005668
11.067964 8.086522 0.022539
14.041101 7.613601 -0.024643
17.623306 0.328115 -0.016794
1.032153 6.135878 -0.004474
19.466638 0.434396 0.026092
14.076355 8.128359 0.022395
5.685974 11.229700 0.016395
4.089495 10.889855 -0.000783
5.921758 2.468545 0.024591
17.514515 8.911742 -0.001053
5.827803 9.516792 0.013559
9.256423 10.372410 0.020241
14.114761 3.115184 0.035936
17.439797 5.410018 0.000874
13.171423 2.658053 -0.005252
15.062184 0.291713 0.027902
3.466536 7.908152 0.029437
17.548157 5.177563 -0.008867
5.514384 2.977403 -0.020101
2.567563 10.165247 0.026381
19.524886 5.948168 -0.030835
4.032799 11.935892 -0.031856
2.733039 9.520294 -0.003366
12.520418 10.430534 0.002049
6.377263 9.279987 -0.021199
2.666984 1.271099 0.004437
12.022422 0.780348 0.005329
15.179705 10.980945 -0.009608
15.863967 1.658366 0.040669
3.110252 4.694714 0.008595
11.137341 7.318932 0.022570
16.273567 2.542780 -0.029124
3.221740 2.703421 -0.029297
4.153645 5.594896 0.009201
0.048228 4.330741 0.037097
10.492683 8.118908 -0.020199
3.893634 0.900914 0.002868
14.484852 5.865104 -0.024702
19.244277 2.091119 -0.014372
4.175110 7.280700 0.003862
12.981940 1.394560 -0.009852
4.236689 2.371582 -0.026110
0.360137 9.646668 -0.026558
15.171084 2.822004 -0.037720
8.680094 8.844784 0.009532
18.935737 3.276752 0.011952
10.685718 2.820330 0.011851
3.149657 3.589857 -0.018184
8.995489 10.571184 0.020119
4.057836 4.765988 0.014136
17.560585 2.925126 0.000146
13.818064 6.439674 -0.003137
6.824776 4.627697 -0.012982
10.556406 9.482370 0.003843
13.389604 11.885347 0.032345
15.657154 6.318893 0.022757
1.602944 5.420987 -0.005124
0.450377 4.116425 0.010772
2.289054 11.680065 -0.022029
7.899926 5.799399 0.014601
9.334132 2.135962 -0.016617
2.729233 11.630591 0.013805
8.223063 11.530586 0.059381
8.832456 5.228701 -0.011400
2.181799 4.178232 0.058456
18.333199 8.165249 0.009813
11.982919 9.947090 -0.014993
7.770711 5.982386 -0.015909
10.138144 3.969756 0.047299
6.283950 3.616728 0.009860
17.086621 3.919185 -0.011323
11.500301 1.416395 -0.004069
9.897916 9.343445 0.008616
18.217708 1.259518 -0.000174
16.759594 4.779774 0.006918
16.256038 10.019320 0.035472
4.512184 4.849271 -0.022559
3.062462 3.537142 0.012893
13.801930 11.379045 -0.001458
9.372845 1.518525 -0.009981
13.674254 10.618247 0.021443
15.212545 0.744922 -0.029229
5.906270 4.962353 -0.047329
5.693009 7.580653 0.004491
9.816631 4.440461 -0.002764
5.470986 6.415277 -0.027057
13.345906 2.448020 -0.034211
14.934609 6.828414 0.038613
9.440779 1.614705 0.009260
14.475995 9.553156 0.000393
10.208751 7.005479 0.043905
14.257434 5.783185 0.020441
4.499365 0.656002 0.035386
14.776861 5.997292 -0.023599
14.302480 6.762833 -0.024348
5.332114 3.188010 0.012342
11.119420 8.131084 0.008290
17.106233 0.921182 0.024993
4.990453 2.504269 -0.032616
14.719596 8.850582 0.014072
19.079334 1.766667 0.019785
17.324838 2.946586 0.018723
8.030402 7.810264 -0.008134
12.144155 8.746100 0.010372
19.835403 0.617871 -0.015513
11.368748 1.519073 -0.005859
2.300552 5.353416 -0.020859
0.908615 7.113539 -0.015173
15.806290 5.445375 -0.004819
8.472567 7.764840 -0.009819
4.936258 9.071915 -0.015176
6.953441 11.394526 -0.025992
15.147457 4.198569 0.039222
9.304947 1.957257 -0.010011
17.369990 3.169008 0.006599
14.698512 1.777973 -0.035179
19.480283 4.730948 0.027153
17.770075 10.470807 0.003343
5.090944 4.164719 -0.008877
13.181185 1.785872 -0.008703
0.410861 6.271595 0.017388
19.822134 11.903326 -0.059062
5.220122 2.258175 -0.016484
13.295902 9.334499 -0.002382
16.983072 9.880307 -0.002612
3.209293 4.816060 0.050106
16.957587 7.434617 -0.006752
0.244913 5.188481 0.019805
8.839543 3.147923 0.036233
9.440752 5.113426 0.013412
7.481814 1.143482 -0.013476
11.727695 8.483473 -0.025690
18.296847 9.950316 0.014908
6.539782 3.688799 0.032901
11.585198 6.797722 0.010919
17.549251 2.785782 0.024669
15.459908 1.529525 0.051839
0.814665 7.963423 0.016747
18.855815 1.609291 -0.022013
0.932938 9.383749 0.001021
11.775169 3.261055 0.027404
11.507072 9.822161 -0.004976
15.727805 4.422055 0.030114
2.968861 4.426111 -0.001339
3.587408 9.006873 0.006687
15.042139 6.123189 -0.007015
2.990095 2.411729 0.003191
9.388903 10.204903 0.004249
14.632962 4.081839 -0.032171
13.024839 1.233321 -0.008832
4.212084 4.992013 -0.024664
6.079205 6.887541 -0.008142
19.379498 7.318624 -0.015903
8.973412 10.027294 0.020236
0.889150 6.496882 0.020468
4.391698 2.684526 0.011206
6.848702 3.139996 -0.025353
19.989788 1.210087 -0.001963
6.053831 8.831091 -0.026944
0.527917 1.271299 -0.002946
10.258432 7.269752 0.012948
1.672108 7.163369 0.019842
5.481352 9.426043 0.009457
19.847664 0.895556 0.025169
14.092770 2.434936 0.005195
1.013333 10.914749 -0.004671
8.973734 6.866842 0.017473
3.432750 5.492283 0.018130
2.458893 8.972115 -0.010483
11.741308 10.830365 0.007580
10.113118 3.156116 -0.005886
14.857332 10.817708 -0.040172
17.846125 1.304336 0.008802
4.933637 11.732197 -0.025890
18.459840 1.978222 0.006564
10.359835 3.194836 -0.030706
5.176698 1.159127 -0.014393
16.915717 9.644118 -0.008672
0.710598 11.810785 0.024034
11.190188 3.563718 -0.010670
14.432431 3.907344 -0.021499
5.599554 3.347759 0.007287
17.269838 1.857937 -0.004339
4.805691 9.449331 0.015811
16.797486 0.728638 -0.020238
1.570899 11.613290 0.004217
3.198552 11.127786 0.049391
7.619692 1.421269 -0.004786
17.081110 6.354286 0.003735
2.891707 11.914216 -0.033221
17.508765 10.231431 -0.017060
4.594631 8.581605 0.009194
9.050168 0.269531 -0.006598
7.054688 0.820529 0.012289
2.362525 9.528205 0.008499
18.886195 4.517338 -0.026361
8.763566 8.021183 0.020306
13.806625 8.870180 -0.024854
11.505354 5.066210 -0.015298
10.034318 1.720581 0.004590
12.331552 4.640334 0.031340
17.966846 10.452581 -0.020078
13.986248 3.973029 0.002954
10.649602 0.751793 0.003120
12.903719 11.509577 0.013147
12.127886 8.168123 0.023681
8.662424 6.490281 -0.008082
12.495280 9.949288 0.020237
8.871396 4.933928 0.026606
15.152288 11.821390 0.035679
19.378250 10.290877 0.010038
19.197307 3.366537 0.003149
16.414716 4.452576 -0.009492
12.035178 3.308916 -0.029180
14.986640 7.912090 -0.005559
3.560966 7.671983 0.002247
9.580369 6.270070 -0.002190
5.146095 11.590084 0.011954
0.069900 5.667303 -0.029083
19.334751 9.404669 -0.003639
17.276971 7.897141 0.039895
10.273972 6.218219 0.019912
5.083046 0.505141 0.012324
13.859504 7.889940 0.007814
8.696022 7.711141 -0.007309
16.066991 1.498488 -0.035081
19.990362 9.550980 0.009143
6.981652 5.603929 -0.048969
4.888061 3.889752 -0.006511
5.347650 9.887513 -0.000073
1.866925 4.120452 -0.008944
7.880924 7.462209 0.043428
0.348501 7.414978 0.036487
2.287911 0.633672 0.020656
5.433915 5.074004 -0.018507
3.197256 2.673345 0.038428
14.643182 2.394848 0.012379
2.112096 7.859543 -0.018840
17.319882 0.136920 0.000654
4.422290 11.628948 0.019171
2.171812 4.744692 -0.011978
0.202133 3.585642 0.002811
14.304100 11.039693 0.006330
5.132335 5.840066 -0.022017
10.189972 7.371903 -0.005402
2.232321 8.350209 -0.020509
19.705918 10.456935 0.017373
2.507695 1.556904 -0.018161
8.238519 0.979838 0.005836
17.032990 11.924529 -0.027803
4.897739 0.106606 -0.022669
5.339436 8.498337 -0.023638
16.169990 7.332784 -0.005792
5.466793 6.630612 0.003608
0.057426 9.429936 0.007295
8.558274 11.909675 -0.035445
0.250704 0.562630 -0.003373
18.195846 7.374366 -0.015011
12.836264 8.601332 0.010684
11.660285 3.671272 -0.005353
4.031790 10.714337 -0.001617
13.998924 5.483914 -0.014899
13.545093 1.973742 0.034493
1.209271 10.252894 -0.025672
17.616931 11.315107 -0.007995
11.588267 1.194179 0.002152
15.849338 9.020170 -0.005027
5.258281 2.580171 -0.015279
2.440956 0.080667 -0.036234
14.048991 3.127366 -0.013830
15.877654 10.258918 -0.019188
7.720671 1.694207 0.033584
0.473846 1.568027 0.045294
16.365080 8.868572 -0.001016
4.121878 4.876316 -0.028095
6.780639 1.781833 0.014761
12.564620 2.760005 -0.019622
1.999094 9.535223 -0.010983
1.439915 7.479225 -0.012577
0.514075 9.131145 -0.010010
18.332797 1.173279 -0.007094
6.227655 5.497251 -0.026270
13.213176 9.565275 -0.014040
19.784705 3.189513 0.020399
13.389016 2.030268 -0.000671
10.501896 4.581407 0.002506
10.418399 4.000560 -0.044645
7.538343 2.225673 0.018956
11.995593 11.447339 -0.013710
19.175828 5.797181 0.022479
15.760881 7.296916 0.003085
8.484532 1.453283 -0.011241
6.648897 7.320421 -0.033556
17.670631 6.663872 0.043497
2.715717 11.183152 0.016065
16.991705 4.947802 0.017261
5.101535 9.384745 0.036377
14.312585 3.650172 0.004482
16.124412 6.947284 0.027048
9.539930 11.123645 -0.009572
3.845680 7.500856 0.014752
16.895355 8.533904 -0.012602
7.350167 10.511814 -0.010077
6.413605 11.105092 0.001940
10.200324 2.499299 -0.025348
8.701725 2.350056 0.006588
13.661044 6.605714 -0.006239
2.743956 11.946197 -0.039751
8.713793 5.881828 -0.009153
17.834036 3.970860 -0.006901
0.721254 6.447135 0.017057
9.146767 0.772749 0.005704
13.210639 2.126481 0.028949
17.754222 1.787045 0.010402
11.875725 0.334987 -0.011079
16.489685 8.666548 -0.001167
4.453820 3.905695 -0.006961
7.056189 2.022436 0.009759
18.842645 6.146925 0.001196
17.719502 3.881333 -0.012571
11.159060 4.716213 0.000172
9.509767 3.786382 0.009224
9.021348 0.047802 -0.020128
1.175793 8.259946 0.006340
17.847542 1.328286 -0.031574
16.362990 2.629709 0.022111
9.125023 2.283805 0.010544
5.588799 3.976408 0.032586
6.858412 1.922372 -0.022332
2.463212 4.163425 0.022669
14.435795 2.919172 0.018716
11.133397 0.734581 -0.003645
4.682068 10.446756 -0.007533
12.460111 3.666973 -0.021703
19.584604 1.143386 -0.026916
2.447903 6.258317 -0.015025
9.169700 1.479306 -0.025116
9.883176 9.277118 0.031914
3.335944 0.738935 -0.030041
10.631604 5.575631 0.002978
12.119545 11.325916 0.008714
3.146891 1.907629 0.007150
3.094478 2.416424 0.008906
17.126974 7.205579 0.018928
6.227749 11.758249 -0.008918
12.606668 4.630029 0.001751
12.535462 7.783741 -0.005871
16.783418 1.827805 0.026051
14.797893 7.696766 0.041997
16.811529 3.031945 -0.023879
12.504296 7.359451 -0.040622
8.989143 1.063934 0.011383
7.871330 6.299628 0.021407
7.580595 2.848860 0.039140
8.367862 8.180504 0.014758
2.586185 8.972037 0.027916
8.479167 10.177710 0.033201
7.788898 11.908744 0.029296
0.691433 5.512257 0.017623
5.502615 8.047133 -0.025644
15.038139 0.221085 -0.000167
11.558911 10.861044 0.006001
16.123350 7.388918 -0.001996
10.853761 5.056140 -0.000762
17.081675 5.211753 0.031345
15.921342 9.095948 -0.015137
1.965691 10.001640 0.015981
19.540127 9.694844 0.006329
0.294949 6.127016 -0.017151
11.936761 4.453760 -0.021532
15.850230 11.346472 -0.034026
6.637883 7.610394 0.009712
11.971396 6.523841 -0.001265
7.242451 7.179827 -0.016516
1.212300 7.558398 -0.037522
0.169230 8.556875 0.008654
1.897241 6.638216 -0.003475
1.968192 10.504264 -0.014274
12.217796 10.316571 -0.019281
10.517305 5.307093 -0.004772
9.109266 2.022433 0.009400
13.838430 6.919869 -0.006600
0.336523 7.448874 -0.023771
5.419670 6.280555 -0.001162
15.547855 10.686934 0.020911
18.199542 1.116243 0.000805
8.766732 3.449022 0.001368
1.629680 10.389478 -0.006513
15.974575 11.272960 -0.017793
17.703409 5.111101 -0.018458
8.273205 2.311728 -0.033237
4.867105 5.043954 0.023625
0.879433 5.473997 0.009249
11.821656 6.234833 0.001650
18.197390 3.292237 0.005912
13.557761 3.751529 0.006791
6.344972 7.867052 -0.014691
12.857766 7.461530 -0.006505
16.641368 7.945230 -0.009484
9.516601 4.527420 0.050228
16.394970 4.037482 0.020404
7.838194 4.218464 0.003358
6.970114 11.414118 0.027320
11.659773 4.742941 0.024794
9.293728 7.273589 -0.027610
19.542238 6.274118 -0.004457
10.327788 10.514662 -0.000326
7.703441 4.429402 0.012231
7.898671 5.209733 -0.004480
10.958799 10.113531 -0.001971
7.098241 1.931491 -0.009227
14.458132 7.131535 0.020979
7.613259 4.798898 -0.028867
7.682888 11.829499 -0.008547
12.339465 8.656609 -0.036874
1.216937 0.126675 -0.020593
13.107098 10.073687 0.006344
10.099444 8.438156 0.006723
9.060522 6.731531 -0.006264
14.385060 2.833542 0.022480
15.165116 1.791800 0.027081
16.925217 7.540795 -0.001385
7.496062 5.279283 0.005009
6.540754 10.339444 -0.009051
14.286842 3.148483 0.012538
11.636097 7.650240 -0.023881
12.636031 2.986116 0.035917
11.110458 7.635805 0.022800
15.453860 0.580136 -0.023979
3.800818 4.700489 -0.015780
11.114243 2.072227 0.008425
3.162036 7.271208 -0.006765
8.145039 3.800737 0.010892
13.279876 9.258391 -0.007188
9.861432 1.375132 0.030496
7.591831 6.674557 0.000166
17.699400 7.124134 0.048411
15.456514 0.265249 0.012054
10.525816 0.431829 -0.026988
19.001063 3.698882 0.041730
8.487306 7.308905 0.021974
15.761459 11.551560 0.007603
3.358725 1.089402 0.012933
5.715850 8.437953 -0.023781
6.761712 8.312593 -0.036088
2.116415 8.033691 -0.000835
10.036096 6.193768 0.027575
3.845203 11.601911 0.007914
12.683718 6.021302 0.034183
3.801847 10.059565 0.026424
2.470125 3.150247 0.000412
19.381735 9.675702 0.023675
13.164806 11.958549 0.030452
18.729018 10.921032 -0.001604
9.797756 3.648861 -0.004276
0.668049 10.153890 0.002809
11.487423 1.143085 -0.048238
11.166578 8.132491 0.005609
0.299512 4.105755 0.014409
17.224841 7.904041 0.002890
12.399414 4.946988 0.006893
14.893823 0.108398 -0.000870
9.878422 2.775319 -0.039940
12.368049 0.508635 0.033252
5.149398 5.127239 -0.007357
19.475155 10.080855 -0.012355
8.014400 8.855961 0.027160
3.246532 9.466946 0.019574
1.118308 9.686396 0.005461
12.723439 4.463277 0.015387
19.667597 6.072309 -0.023100
17.915890 6.101414 -0.001618
14.042091 1.358502 0.025896
19.811959 7.177705 -0.013543
14.456565 8.642157 -0.019967
6.785022 7.331614 0.001572
12.024363 8.951591 0.002041
1.595333 1.426695 0.012951
4.433650 9.136907 -0.027563
8.350805 2.497681 -0.050988
4.036370 10.521922 0.018425
19.070020 2.939176 -0.021660
19.911951 5.903909 -0.012200
7.418718 5.847196 -0.043665
14.184580 3.226204 0.020458
8.155415 4.340515 0.007007
2.790184 2.227161 0.006204
6.738537 6.841208 0.006069
4.667434 10.956336 -0.041203
6.561564 3.799291 -0.019703
4.300434 6.096751 -0.009035
2.246902 10.342567 -0.014975
4.348569 5.429989 -0.005430
18.115141 9.975124 0.004924
1.704434 5.356688 0.020129
6.495133 5.282910 -0.029604
10.568998 1.886880 -0.000177
7.090253 1.499746 0.014231
10.352142 7.337961 -0.018482
0.868401 9.928002 -0.003857
12.971393 1.624878 0.009331
11.269576 10.921127 0.000224
13.619325 4.306558 0.013484
11.345156 5.103086 0.001894
8.758072 10.733441 -0.006237
7.002831 10.755557 -0.023454
4.528704 6.298307 0.004943
10.001355 3.321179 0.001999
0.521049 2.063274 -0.019857
6.564817 3.258961 0.011641
13.557446 9.367529 0.025358
2.174341 3.895090 -0.013202
1.257825 8.334738 -0.014553
13.043572 2.342410 -0.015283
7.955494 5.742044 -0.033573
16.036501 4.225275 0.040090
18.746226 6.043348 -0.008978
19.140809 6.839343 -0.017169
8.511857 11.891220 -0.022536
5.286544 10.798741 -0.007759
12.172275 8.350398 -0.013904
12.563859 1.844922 0.028761
12.446899 11.028343 -0.024975
6.435572 10.711033 -0.030771
1.275035 10.640441 0.011036
4.200097 5.748202 -0.002144
3.088389 2.048481 -0.004459
2.478007 9.052839 0.011193
18.525666 4.662180 0.002734
0.276953 4.134819 -0.000936
12.037155 4.689384 -0.028113
18.949476 6.708847 -0.033362
7.201063 4.002226 -0.014009
10.541962 8.279047 -0.021687
13.915673 7.772686 0.005384
6.343394 6.106351 -0.035974
9.553040 0.647679 -0.008943
16.342057 11.238512 -0.003461
14.907113 4.940355 -0.000793
16.168988 5.393438 0.007979
19.746803 5.472390 -0.006531
7.406549 4.380335 -0.013350
14.941825 8.095055 0.024890
12.055691 0.167012 -0.006401
13.332095 10.482100 0.028383
14.797478 1.229268 -0.006503
14.994626 11.996564 -0.000325
17.714903 7.536992 -0.002775
6.986434 0.794958 0.004624
13.069627 6.749245 -0.008397
5.605809 3.975694 0.001923
11.891374 11.436519 0.030616
15.023503 9.065652 0.020977
15.820022 6.084176 0.021115
8.402490 5.157329 -0.026839
10.174404 11.950426 -0.023602
6.676997 8.008609 0.004355
3.380727 6.167157 0.015415
5.210348 4.775329 -0.010383
18.242740 3.894994 -0.013952
6.179391 8.465033 0.027877
19.495187 7.054626 0.013718
4.829562 10.178218 0.021160
14.461422 6.642729 -0.008829
11.478066 6.987977 -0.010400
13.937401 5.728278 0.018978
12.879159 9.151451 -0.005255
14.134972 4.979906 -0.012217
18.110941 10.223275 -0.018264
11.269390 3.924537 -0.010226
1.356976 8.311501 0.017502
5.416509 10.715651 -0.030193
14.164380 9.228886 0.012581
9.881493 4.111298 -0.014164
10.971040 8.476068 -0.004206
11.931609 2.483818 -0.002925
7.652585 0.697981 -0.004415
15.477911 9.496581 -0.005743
14.470698 9.696109 -0.008887
14.285988 0.275171 -0.011429
14.306203 11.373540 0.026395
17.807160 5.350798 0.000501
11.907856 10.863266 -0.002519
19.341444 9.458094 -0.012893
2.383854 10.807842 -0.008159
12.639180 10.000508 -0.012823
14.338531 11.687944 0.015307
9.544408 7.549212 -0.015072
5.764168 2.727106 -0.044925
11.000749 4.674758 0.001166
7.294954 9.022551 -0.005588
18.182481 1.883631 -0.011716
7.135848 11.158108 0.018231
3.514140 2.463347 -0.054670
11.527783 10.511697 0.031525
7.919852 5.804687 0.021094
1.917963 10.087442 -0.012561
11.296847 11.499548 -0.009016
10.756928 5.065769 0.010088
3.463942 8.359254 0.010624
11.952763 2.720611 -0.012678
11.347179 9.609429 -0.032336
15.472252 9.839108 0.042274
7.231399 3.542948 0.019122
4.975190 0.289689 0.003137
19.024398 5.174463 0.003516
11.224350 2.040006 0.012426
0.542799 9.822613 0.014821
16.414234 3.133167 -0.041727
3.935161 11.324314 -0.007017
15.720726 11.661708 -0.009097
14.103249 10.906031 -0.003229
19.376274 7.195374 0.015416
19.311586 3.209136 -0.035802
5.488212 9.687101 -0.026983
15.328992 8.419145 -0.013635
6.337102 11.726020 0.003087
12.583959 4.527024 0.016643
11.954922 0.705216 0.032626
1.090870 11.980636 -0.005727
0.103635 10.059164 0.016610
1.155280 2.657876 0.014203
2.558841 8.707534 0.010833
5.153050 0.008282 -0.000486
18.139104 6.693709 -0.007991
10.372654 4.354059 -0.021308
15.937835 4.575996 -0.022632
16.766235 2.934238 0.006942
14.698862 3.298143 -0.001088
7.827702 5.456024 -0.008310
17.277188 2.977740 0.013296
14.840995 5.597279 -0.004010
8.873877 4.984278 0.788609
6.650526 4.942737 1.134360
8.882219 5.482653 1.053355
8.235398 5.407868 0.833178
6.653296 5.661786 0.193189
8.767787 4.932989 0.579817
6.884360 4.508952 0.142546
8.111735 5.821689 0.659278
7.529611 4.561916 1.100140
8.725671 5.452018 0.004588
8.989020 4.950565 1.051218
7.899975 5.092946 0.647182
8.722233 5.673246 0.181499
9.166550 5.087411 1.027039
8.529762 4.702120 0.644276
7.501573 5.556209 0.537799
7.897274 4.528296 0.599662
7.243994 4.884626 0.176846
7.883543 5.253303 0.135286
7.288493 5.112869 0.793868
8.860299 5.368320 1.056494
8.307769 5.033887 0.833350
8.373089 5.046819 1.008942
6.908737 4.988120 1.013726
6.604089 5.742179 0.038449
8.809723 4.524215 0.925146
8.118458 5.815499 0.926511
9.208349 5.001510 0.419972
8.104270 5.010836 0.491819
7.201100 5.516250 0.894588
8.555734 5.043587 1.183866
8.562752 5.363303 1.185390
6.783491 5.765083 0.568611
8.542223 5.684677 0.947461
7.195079 5.221513 0.559274
7.312658 5.503313 1.039151
6.687961 5.049409 0.779673
8.356642 5.586462 1.123968
8.648842 4.738257 1.196688
7.245377 4.563884 0.396225
8.819109 5.257026 1.175189
8.733688 4.801474 0.831016
7.747345 5.520216 0.285703
6.791030 4.641853 0.003734
7.384519 4.511893 0.820606
7.063202 5.445985 0.266856
9.284691 5.201119 0.277654
8.889684 5.832822 0.662602
6.819454 4.846480 0.037111
8.037688 4.672559 0.499643
7.347282 4.532349 0.959248
6.689930 5.121946 0.032712
7.502444 4.641144 0.748730
6.957239 5.585901 0.190056
7.223650 4.600780 1.035407
7.514313 5.789057 0.468824
7.744893 5.257195 0.974547
7.911639 5.474921 0.868584
8.056552 4.683284 1.053402
7.636002 4.625307 0.620232
7.995379 4.995157 0.583336
7.770004 5.228608 0.044917
9.300429 5.305703 0.640577
6.789394 4.961704 0.626372
8.240664 4.881727 0.727674
7.142212 5.873975 0.157226
7.651226 4.881727 0.647961
8.130104 4.693095 0.544839
8.727466 5.003244 0.715171
9.337647 4.925420 0.792660
7.982141 5.090429 0.433708
7.319542 5.373199 0.604864
8.816411 5.344407 0.474117
7.220403 5.477606 0.918588
8.021954 4.719359 0.955708
8.970792 4.564322 0.351530
7.730636 5.607134 0.311455
8.159538 4.804014 0.813988
6.934740 4.941931 0.928819
6.756710 5.137952 0.013039
9.361591 5.502829 0.512923
7.100908 4.729018 0.369277
7.539537 5.763363 0.919825
8.013118 4.950138 0.172249
7.648521 5.875728 0.933896
6.872549 4.899578 0.793688
7.151360 5.515914 1.011515
7.981653 5.027337 1.188292
7.828644 5.671223 0.571866
8.834943 5.147369 0.839294
7.473006 5.718745 0.851953
9.232882 5.555514 1.013488
7.391869 5.320440 0.621750
7.527636 4.849986 0.129177
9.258077 4.863815 1.175236
8.953353 5.887991 0.068205
7.487510 5.795543 1.154849
7.706797 4.693786 0.306430
8.958329 4.785690 0.590981
6.841050 4.649540 1.140794
7.425094 4.781873 0.811993
8.088357 4.906333 0.702674
8.920932 5.672678 0.391071
8.180927 4.633255 0.350887
7.971381 5.734969 0.039333
9.293929 5.860702 0.703599
6.925949 4.894436 0.516122
8.784185 5.138727 0.269161
6.955698 5.241060 0.461057
8.651917 4.787965 1.129131
8.120651 5.524207 1.018080
7.341009 5.311998 0.516489
8.121344 4.657048 1.175944
9.062365 5.754375 0.554541
7.922114 4.923070 0.418970
6.618420 4.718746 0.465505
6.758496 5.874596 1.049540
8.371384 4.644073 0.321306
8.498208 4.583575 0.266523
7.724970 4.832574 1.152657
7.279785 4.946971 0.881123
8.604706 5.107324 0.916537
7.451651 5.459238 0.888348
6.807232 5.011999 0.819489
7.746910 5.283067 0.109498
8.109588 4.508136 0.904415
9.303761 5.038860 0.298706
8.258221 5.822956 0.158886
7.183296 5.584785 1.179604
8.930142 5.537121 0.033437
7.416150 4.926322 0.037963
9.285979 5.183447 0.371895
7.510874 5.682333 1.013042
9.146650 5.732218 1.173533
9.061071 5.494760 0.142233
9.019180 5.139158 0.474528
6.710279 4.602431 0.881162
8.979636 4.667095 0.774634
8.619640 4.500410 0.280052
7.536035 5.002880 0.395047
7.972276 4.532738 0.713250
8.391762 5.109031 0.042488
9.241904 5.336558 0.909875
8.784237 5.334232 0.330486
7.799802 5.277417 0.994015
8.407178 4.816639 0.820403
7.120438 5.226864 0.774497
7.787039 5.871770 0.920833
8.815644 5.122465 0.090161
8.298451 5.724288 0.311965
8.793098 5.033968 0.626085
8.027487 5.372262 0.932588
7.664402 5.174574 1.018867
8.679113 5.464071 0.458524
6.862514 5.756329 0.952377
9.340099 5.117261 0.264329
9.255447 5.560359 0.098922
9.065032 5.735556 0.295900
9.075979 5.605362 1.083778
8.030957 4.534378 0.652844
7.994248 4.500266 0.577619
8.896230 5.736144 0.892002
7.393118 5.521039 0.012112
8.979759 5.841385 0.141964
7.162465 4.909475 0.119523
9.061500 5.603156 0.146001
8.115039 5.622131 0.544140
8.960991 5.700257 0.336819
7.980800 5.468839 0.942870
8.303610 4.693631 1.006847
9.195001 5.453320 1.109927
7.770994 5.346277 0.235275
7.216802 4.967141 0.603422
6.854745 4.792059 0.058437
8.251941 5.739140 0.287890
8.311038 4.698725 0.738093
8.337974 5.091077 0.506871
6.704065 5.371918 0.828839
6.676763 5.860515 1.007073
9.107168 5.439367 0.071442
8.547406 4.926829 1.126336
6.917288 4.584927 0.050884
6.808983 4.944784 1.178002
7.053200 4.909901 0.765158
8.859373 5.646711 0.051960
8.624641 5.027218 0.472355
8.388229 4.637828 0.309850
8.394214 5.717968 0.958287
9.004847 4.525276 0.270546
7.533684 4.504213 0.991455
7.502244 5.164655 0.374810
7.791195 4.596908 1.186972
9.371093 4.747943 0.324491
8.153717 5.879398 0.821953
8.131323 5.682111 0.960233
8.866863 5.569653 0.259751
7.098581 5.439110 0.090907
7.735123 4.566942 0.661497
8.395815 5.670272 0.812495
9.366447 5.159664 0.980731
7.032515 4.637648 0.327317
7.865675 4.921051 1.046743
9.135629 5.202755 1.098920
8.631487 4.519172 0.935024
8.318585 4.853387 0.009116
7.319903 4.970293 0.104660
7.124190 5.149308 1.197285
7.647794 4.502774 0.880738
7.314302 5.291620 0.752150
8.863733 4.776687 1.081634
8.617970 5.336151 0.047570
8.938555 4.834810 0.908853
7.079030 5.063806 0.785613
7.467914 5.373082 1.017865
8.751944 5.419202 0.933485
7.057936 4.542834 0.581917
7.007694 5.249104 0.085162
7.672565 5.643298 1.091282
7.122023 4.788992 0.916203
6.820927 5.244784 0.427675
7.475769 5.126660 1.180714
9.051679 5.689909 0.373330
6.758292 5.114268 0.444673
8.185094 5.821377 1.169611
8.176411 5.413400 0.801733
8.086354 5.285937 1.055034
8.015424 4.908687 1.065305
6.648262 5.335136 0.643738
6.732863 4.683745 0.320360
8.031380 5.082742 1.016935
9.311266 4.898199 0.602265
7.742332 5.438387 0.677221
7.922515 5.569594 0.649642
9.349777 5.800080 0.011506
8.781518 4.810941 0.055043
8.756308 5.738651 0.739661
8.013259 5.684332 0.953325
9.114155 5.707404 0.548446
8.227294 5.536666 0.228490
8.438753 4.874810 0.487962
8.805155 5.729021 0.921988
7.738438 5.339368 0.130346
9.269157 5.536856 0.672239
9.366420 4.787360 0.842655
8.243986 4.720375 0.499000
7.221755 4.887592 0.721515
8.769726 5.215919 1.060172
7.501988 5.083275 0.255376
8.215890 5.742651 0.162100
6.842770 4.518226 0.073018
8.860694 4.612068 0.871456
9.285443 4.955574 1.080637
6.863820 4.734825 0.828472
8.648477 5.069451 1.171743
9.010349 5.504630 0.849733
6.906617 5.890785 0.346194
7.291030 4.782905 0.306707
7.697239 4.872364 0.800003
8.942929 5.576234 0.810974
7.981608 4.880870 0.628575
6.983497 5.485250 0.632267
7.317839 5.316885 0.499970
7.908658 5.696852 0.419905
6.709940 4.546671 0.760863
8.366792 5.871646 0.897021
6.670901 5.849951 0.976087
8.786440 4.531343 0.369404
8.654783 5.199313 1.029281
9.023232 5.061997 0.363291
7.041596 4.855828 0.365854
8.287239 5.868956 0.967203
8.786877 4.744441 1.163251
8.044097 4.868976 1.118671
6.966252 4.511512 0.133295
6.876992 5.312312 0.346172
8.296513 5.705118 0.911876
7.993301 5.370678 0.967492
9.202768 5.412250 0.605120
8.934754 4.592849 0.019323
8.626498 5.500730 0.602217
9.350711 5.072606 0.037376
8.544910 5.163197 0.337675
6.858616 5.319022 0.788232
6.817176 5.865510 0.161523
8.884434 5.547457 0.854987
7.609970 5.457498 0.745663
9.187995 5.104650 0.515633
6.931093 4.548231 0.446586
7.156604 5.254159 1.097600
8.764869 5.425234 0.663805
8.972928 5.485866 1.066679
9.028150 5.351034 0.494931
6.877590 4.920514 0.713568
7.669046 4.809444 1.145530
8.409882 4.626132 0.148903
9.172628 5.483964 0.315337
7.269242 5.859100 1.100033
8.280960 5.235031 0.506405
7.001854 5.442456 0.326442
8.692380 5.469644 1.196808
6.957068 4.726019 0.122651
9.399951 4.768522 0.733852
6.858347 4.791448 0.945689
8.518944 5.805978 0.944087
8.775709 4.521812 0.530210
7.322371 5.257636 0.052753
7.313520 5.028049 1.009233
8.269212 5.423090 0.963285
8.365329 4.808689 0.284857
8.617473 5.845639 0.408633
8.224823 4.963701 0.615111
7.088507 5.796297 0.136972
9.187602 5.324880 0.984677
7.066512 5.080246 1.106520
8.182668 5.527440 0.369833
9.176008 5.274291 1.108835
9.156315 4.694016 0.961043
7.070138 5.486285 0.873391
7.268088 5.311291 1.162984
8.285182 5.291903 0.389580
7.544060 5.533404 1.098771
8.646473 5.414872 0.118084
8.062732 5.012740 0.573617
7.345052 4.945884 0.662414
7.750906 4.851146 0.147373
8.535111 5.305204 0.884825
8.798396 4.919843 0.570215
7.634771 4.668586 0.546649
6.893959 5.595776 0.697728
7.589176 4.792785 0.161654
8.365318 4.730828 0.240030
8.727530 5.688601 0.216821
9.063046 5.482979 1.142319
9.293437 5.572620 0.927828
8.082220 4.990505 0.635036
9.064581 5.364411 0.791346
7.333818 5.805072 0.779974
8.167025 4.895776 0.314814
8.110278 4.596547 0.103929
8.752344 4.739229 0.665927
8.764744 5.756453 0.315651
7.398960 4.894144 1.048166
9.080412 5.187754 0.283264
9.096180 5.248397 0.687434
9.255076 5.844019 0.504111
7.881404 4.922071 0.891483
9.364760 5.229948 1.140895
8.797752 5.841374 0.493885
8.428925 4.781883 0.053225
7.810322 5.337039 0.793718
8.958807 4.589049 0.155022
8.739585 4.868165 0.125402
8.239563 4.596901 0.793870
9.392008 4.962214 0.123375
7.298492 4.789007 0.154533
8.396911 5.617782 0.526897
7.499156 5.148754 0.542791
7.881961 5.067000 1.096457
7.549050 5.469252 0.331361
7.536755 5.826079 0.481122
7.655113 4.922161 0.849025
6.758703 4.593451 0.992424
6.711611 4.653692 0.418944
8.629782 5.700101 0.757293
7.470544 5.684197 0.749023
6.659401 5.165512 0.363849
6.828147 4.706700 0.142345
7.148378 5.237085 0.819021
6.734994 5.435791 0.321682
9.249212 4.965131 0.381939
8.191410 4.615525 0.686826
7.703268 4.950718 0.192971
8.091594 5.466804 0.289798
6.915896 5.869715 0.535295
8.565168 4.766126 1.054180
9.314853 5.780378 0.926707
6.965840 5.139272 0.381116
7.027280 5.428505 0.362483
8.360257 5.709179 1.184814
7.025404 5.280445 0.784061
6.952948 4.586046 0.822641
8.477355 4.872090 0.066149
8.332241 5.624068 0.125967
7.209664 5.274049 0.353344
8.904901 4.960704 1.010413
6.894702 5.316622 1.092803
7.531210 4.875998 0.229235
8.668829 4.837414 0.857036
8.318923 5.659750 1.048965
8.280199 5.060095 1.054681
8.521568 4.883585 0.550569
8.410096 5.072847 0.310534
9.047958 5.788887 1.147541
8.192549 4.753104 0.331900
7.723597 4.759321 0.303234
8.745050 4.995271 0.246819
7.325871 4.584614 0.639043
8.726858 4.604890 0.128621
7.383955 4.515370 0.684825
7.945066 4.704662 1.132427
8.669741 5.396542 0.605963
8.357446 4.774997 1.158417
6.839929 5.028906 1.086844
7.850367 5.487819 0.950762
8.873196 4.544552 0.729669
9.390942 4.792682 1.056813
7.907034 5.894243 0.665981
6.840592 5.335747 0.248642
7.625320 5.423972 1.110215
7.971784 5.222467 0.602628
6.805600 5.852249 1.089298
9.019925 4.702016 0.471775
8.108615 4.594322 0.402869
7.765124 5.642633 0.919190
7.712117 4.505735 0.761335
6.679264 5.286187 0.527670
8.052852 4.501977 1.054307
7.931613 4.987543 0.619892
7.568479 5.411241 0.015349
8.444296 5.266257 0.831845
7.750890 5.283807 0.075788
8.200939 4.720285 0.577323
9.078119 4.912626 0.230495
7.618883 5.494041 0.290380
7.714187 4.532616 1.175778
9.024531 5.333397 0.136175
7.602663 5.223892 0.909249
7.830216 4.981540 0.764934
8.842274 4.968685 0.234051
8.257227 5.618526 1.122406
9.214880 5.034796 0.241700
7.917856 4.611804 0.618702
7.941274 5.846855 0.948626
6.720199 4.682517 0.916285
7.152449 5.616435 0.383650
8.111998 4.519521 1.007127
7.123910 5.010158 1.154516
7.870034 5.221253 0.568824
7.393288 4.541695 0.782778
6.658277 5.527721 0.437417
7.930306 4.864814 0.424899
8.409556 5.257636 0.563659
7.547054 5.609259 0.236560
8.774275 5.327559 0.827282
7.008951 5.137859 0.198690
6.855617 4.970557 0.006217
9.217556 4.563147 0.527371
9.180638 5.778229 0.091704
7.738324 5.328704 0.674927
7.775809 5.384150 0.624443
8.982900 5.116717 0.164717
8.085459 5.021797 0.295196
6.927919 4.565317 0.029343
6.921646 4.736588 0.712744
6.967166 5.095768 0.351439
8.786143 4.838386 0.855582
8.285310 4.562219 0.755791
7.439345 5.264420 0.448305
7.053806 5.149759 0.026068
6.945698 5.089922 0.384197
8.675885 5.597921 0.389837
9.080415 5.339339 0.399246
8.087019 4.501981 1.144132
8.763588 5.566674 0.197472
7.392760 5.175623 0.324072
8.239859 5.223540 0.998879
7.826509 5.745402 1.110189
6.845544 4.652908 0.561943
7.964627 5.339165 0.648059
8.971003 4.895024 0.063430
6.744991 4.551396 0.969646
7.935897 5.112334 0.713472
9.045137 4.897058 0.574812
8.812201 4.502090 0.363091
7.981660 5.190123 0.532525
7.079765 4.935573 0.882374
8.975873 5.107773 0.096929
7.028777 4.516424 0.608177
7.375098 5.062495 0.041566
6.947971 5.158566 0.926704
7.885226 5.152430 0.253221
8.361754 5.503697 1.084065
8.915931 5.887801 0.571313
7.891745 4.539007 0.548716
9.318017 5.054437 0.432422
8.268400 5.699404 0.619633
8.292348 5.375975 0.405633
7.090806 5.877042 0.431910
7.132325 5.498782 0.234735
8.214553 5.513946 0.414257
8.618462 4.606518 0.974058
7.173179 4.885357 0.294829
7.955249 5.317334 0.985522
7.597360 5.231350 1.033575
7.828539 5.567628 0.799601
7.221967 5.891121 0.036821
6.994024 4.789526 0.673240
7.497403 5.099759 0.999779
9.032967 5.713576 0.438940
8.854632 5.673409 0.339387
6.884632 5.644071 0.385652
6.845864 5.368551 0.507692
7.980263 5.890471 0.084203
7.376670 5.001065 0.285222
8.905592 4.662813 0.776322
7.961307 4.685584 0.566981
8.987582 5.109969 0.296810
6.902957 5.626930 1.117055
9.316216 5.133985 0.354651
8.747884 5.355936 0.155181
8.649254 5.001230 0.239218
9.232605 5.500764 0.355902
7.916848 4.714398 0.627071
7.016889 5.228162 0.079585
7.991322 4.759181 1.025930
8.882627 5.156029 1.052972
9.006720 5.102692 0.382021
7.967928 5.346387 0.930375
8.650446 5.213363 0.719631
7.291468 5.866038 1.014533
7.245532 5.760436 0.332360
8.241527 4.911709 0.732283
7.780903 4.669648 0.087234
7.050947 4.590652 0.011342
8.731815 4.777191 1.049637
8.090013 4.810950 0.353457
8.057098 5.744154 0.534493
7.130067 5.794777 0.278135
7.275194 4.822658 1.052169
8.539582 5.562224 0.461441
8.985329 5.670070 0.214943
7.096194 5.028515 0.729591
8.874568 5.720232 0.246556
8.806666 5.884113 0.312828
8.881753 5.854913 0.807354
8.228883 5.538670 1.151063
7.585158 5.020328 0.905772
8.758859 4.817808 0.148971
7.943847 5.890018 0.375069
7.221219 4.886644 0.955638
7.726683 5.113736 0.330177
7.881607 4.869774 0.888083
8.014966 5.194566 0.566151
9.113178 4.654533 1.061290
7.751262 5.632679 0.430979
7.397470 5.207150 1.121486
9.294574 5.087303 0.488922
7.277455 5.008402 0.871483
6.631126 5.311698 0.234233
8.979499 5.591843 0.636947
9.272448 5.763585 0.372162
8.509969 5.678126 0.015272
7.741419 5.123718 0.524729
8.122513 5.667589 0.206996
8.929604 5.240062 1.150302
9.078953 5.393449 0.970307
6.887072 5.444385 0.887430
9.030391 5.059555 0.543998
8.328579 5.180474 0.310926
6.690380 5.469625 0.389236
6.903760 4.931100 0.245237
6.727496 5.545679 0.662266
9.255964 4.995744 0.973532
7.794250 5.319685 0.224893
8.603724 5.672672 0.005457
6.604809 4.532487 0.150728
8.820882 4.836476 0.553119
7.949699 5.285635 0.022315
9.186087 4.648543 0.483921
8.058513 4.787842 0.133390
8.808640 5.548725 0.129320
8.362507 4.536152 0.855133
8.057508 5.354051 1.199397
9.255084 4.547820 0.233378
7.987678 4.662293 0.275507
9.098687 5.046477 0.355702
6.701017 5.850676 0.942131
8.440773 5.264187 0.607073
9.152652 4.937114 0.684812
9.117971 5.075857 0.655809
7.958150 5.296281 1.124846
7.921872 5.367183 0.041824
8.869438 4.875065 0.189499
7.538044 4.776212 0.458536
9.224052 5.193433 0.585637
7.301916 5.402792 0.136724
6.808314 5.643212 1.071804
8.761387 5.329913 0.813431
7.733228 5.469408 1.118692
7.596177 5.177571 1.128961
7.498548 5.293407 0.615040
9.345238 5.389627 1.023610
8.200695 4.830864 0.884106
9.377360 5.807704 0.432610
7.562027 4.983474 0.788819
7.759114 5.346563 1.143297
7.192936 5.285336 0.916811
7.805020 5.694684 0.851295
6.773615 4.659046 0.266246
6.601562 5.737923 0.997354
7.868606 4.691821 0.467598
8.688867 4.702343 0.748894
7.823782 5.707157 0.813273
8.050415 4.859943 0.618290
7.847725 5.356501 0.198702
8.075052 5.149055 0.836948
8.771691 5.807973 0.296691
8.850602 5.594918 0.318437
8.946563 4.968991 0.152150
7.194804 5.638817 0.743931
7.881964 4.816104 0.140887
8.926816 5.361800 0.414260
9.237261 5.552217 1.067427
8.120353 5.484422 0.543679
7.980400 5.419355 1.073406
8.740865 5.661956 0.591260
9.376744 5.278692 0.214601
7.792610 5.799687 0.910699
7.062279 4.702734 0.424137
8.936059 4.997992 1.159693
8.589191 5.596189 0.314555
7.006212 4.931278 0.986577
7.505826 5.120129 0.592632
8.149025 5.582031 1.010559
8.648104 5.253998 0.219643
8.785810 4.762665 0.760402
7.036048 4.744774 0.135823
7.206902 4.921725 0.966619
8.683543 4.924218 0.282784
6.925115 4.691344 0.513091
7.994849 5.668525 0.787171
8.128778 4.895677 0.573858
7.550193 5.623145 0.934676
8.829741 5.862830 0.825805
6.755164 4.964746 0.156487
8.776845 5.858323 0.928155
8.408892 4.767681 0.508179
8.020209 5.406435 0.717309
9.042644 5.887652 0.259888
7.166290 5.631721 0.507710
8.842167 4.821581 0.980593
7.125769 4.860266 1.111514
9.373249 4.867403 1.126435
6.691741 5.820190 0.840107
8.148952 4.843576 0.094692
7.070447 5.213461 0.531160
7.742330 4.989845 0.231685
7.014251 5.005777 0.837137
7.142711 5.071505 0.193645
6.770745 4.983063 1.173091
6.622410 5.339899 0.233443
8.614056 5.095660 0.063256
7.869689 5.117416 1.012256
6.727658 5.208392 0.242726
9.229115 4.998650 0.028815
8.463708 5.556383 0.657693
7.339965 5.204875 1.163081
7.828346 5.212896 0.320997
7.969947 4.793783 0.490468
8.195798 4.543171 0.284600
9.000861 5.632985 0.669582
8.251721 5.697675 0.387347
9.340433 4.837746 0.709636
8.635065 5.004045 0.573625
9.367848 5.001225 1.114698
8.142098 5.457897 0.804021
8.499658 4.762130 0.819113
8.666116 5.870199 0.583760
8.713292 4.586606 0.363774
6.668403 5.863274 0.376756
6.956928 4.596295 0.604790
7.237623 4.944520 0.230293
7.360185 4.850971 0.158912
9.135031 4.863488 0.446838
8.623289 5.892537 0.156571
7.001189 5.141692 0.276914
7.793794 4.667315 0.642029
7.280740 5.875192 0.948114
8.923618 4.839732 0.269726
9.169832 4.601566 0.949997
7.060012 4.533853 0.018650
7.766398 5.148523 1.196427
9.267944 5.785665 0.620327
8.439850 4.523745 0.571065
9.030671 5.515247 0.780667
7.601542 4.864591 0.570211
7.187167 4.806685 0.489627
8.535650 5.485306 0.445180
6.984794 5.547023 1.173400
8.951725 5.282621 1.033796
8.713544 4.783158 0.602893
7.453739 4.508831 1.003743
7.996392 5.532189 0.178907
8.837743 5.339460 0.635334
9.217749 5.091565 0.540205
7.586049 4.799015 0.389859
8.811977 5.566708 1.102128
7.144508 4.599253 0.998992
9.129912 5.399783 1.088503
8.521500 5.463758 0.762260
7.027670 4.812560 0.451465
8.671521 5.176655 0.908175
8.627361 5.228279 0.130280
8.678433 5.327795 1.023695
7.565657 5.761663 0.034535
8.671441 5.264981 0.981855
8.914396 4.594246 0.844729
7.571961 4.982961 0.106153
7.182281 5.379658 0.176397
9.086064 4.966397 0.542870
8.337943 5.575116 0.359850
7.889084 4.765868 1.040751
9.063283 4.700207 0.231400
6.980816 4.823446 0.500496
8.869637 5.726519 0.312565
7.974300 5.453309 0.152619
6.719068 5.228068 0.311690
9.323316 4.920472 1.031985
8.778587 5.786027 0.858600
7.201316 5.744287 1.097088
9.186348 5.059161 0.486335
9.218968 5.553813 0.288495
8.841304 5.778989 0.031581
6.956077 4.938695 0.594190
7.121868 4.960206 0.047674
8.711292 5.264129 0.005130
9.158656 5.071713 0.725650
7.202051 5.566071 0.197791
7.890318 5.251702 0.671735
7.033423 4.796598 0.688227
7.938422 4.998942 0.868607
8.399082 5.439735 0.459754
6.651954 4.574808 0.846187
8.400196 4.979034 0.439159
8.391300 4.522535 0.117345
7.874024 5.649214 0.371988
9.107126 4.664066 0.009081
6.977493 4.608087 0.554954
6.743673 5.601230 0.888373
7.988327 4.625310 0.941697
8.092497 5.457968 0.278516
7.346730 5.031809 0.126772
9.292558 5.650379 0.222516
7.310436 4.755992 1.180456
7.356453 4.618184 0.374523
8.870762 4.819770 0.515141
9.183906 5.804989 0.090752
8.101191 5.660769 0.947196
6.653351 4.900102 0.538188
7.595218 4.788560 0.104877
7.227032 4.719579 0.567530
8.030851 4.809685 0.855930
8.511201 4.787062 0.567645
7.698822 5.743463 1.162359
8.104608 4.527980 1.045997
8.727609 5.732172 0.617768
7.289212 4.557995 1.128609
7.148710 5.657569 0.973665
8.855778 5.096046 0.441924
6.703666 4.608088 0.925692
7.021670 5.618607 0.607023
6.634599 4.859016 0.646934
8.155077 5.729239 0.624745
8.280240 5.553161 0.964414
8.086886 5.874479 1.102289
7.759953 5.664622 0.383421
8.081282 4.837346 0.770305
7.143026 5.072901 0.754091
8.913480 5.475282 1.064997
9.346164 4.942491 0.536654
8.113744 5.265105 0.228193
7.648196 4.832706 0.243703
8.816992 5.428131 0.061532
7.140601 4.978988 0.120874
7.498166 4.577249 0.361463
9.231946 5.854884 0.123076
7.121624 5.681465 1.045310
6.913924 4.925203 0.434422
8.129790 4.681475 0.442161
8.244769 5.529317 0.909008
8.272020 4.808942 0.361605
7.060539 5.347636 0.858219
8.619205 5.590711 0.986908
